7.794587612152099609e-01 2.156808599829673767e-02 -6.260822415351867676e-01 4.271989315748214722e-02 9.952507019042968750e-01 8.747100830078125000e-02
-1.671414077281951904e-01 9.708128571510314941e-01 1.720062047243118286e-01 2.757467329502105713e-03 1.749199628829956055e-01 -9.845787882804870605e-01
4.298115372657775879e-01 -6.861141324043273926e-01 5.869493484497070312e-01 -8.981308937072753906e-01 -2.580205500125885010e-01 3.560707271099090576e-01
6.886652112007141113e-01 -8.631179481744766235e-02 -7.199240326881408691e-01 1.598453223705291748e-01 9.865345358848571777e-01 3.462911769747734070e-02
1.884713023900985718e-01 -4.780197441577911377e-01 8.578902482986450195e-01 -8.752543330192565918e-01 -4.779628217220306396e-01 -7.403665035963058472e-02
-5.259249210357666016e-01 8.364811539649963379e-01 1.539553403854370117e-01 -2.946859970688819885e-02 1.629812866449356079e-01 -9.861890673637390137e-01
5.069535374641418457e-01 -8.593637943267822266e-01 -6.702198833227157593e-02 -3.317577540874481201e-01 -1.227620169520378113e-01 -9.353429079055786133e-01
7.765623927116394043e-02 3.870384693145751953e-01 9.187876582145690918e-01 -9.969741106033325195e-01 2.692859619855880737e-02 7.292094081640243530e-02
-1.548900548368692398e-02 -3.035227060317993164e-01 9.526983499526977539e-01 -9.991179108619689941e-01 4.189274087548255920e-02 -2.896978519856929779e-03
9.513025879859924316e-01 1.565217413008213043e-02 -3.078610599040985107e-01 1.086414698511362076e-02 9.963872432708740234e-01 8.422862738370895386e-02
5.588578525930643082e-03 9.471074938774108887e-01 3.208679556846618652e-01 -9.826020002365112305e-01 6.476888060569763184e-02 -1.740645915269851685e-01
3.602285087108612061e-01 7.438873052597045898e-01 -5.629094839096069336e-01 -8.751695156097412109e-01 4.784052073955535889e-01 7.215820997953414917e-02
-7.410694956779479980e-01 -3.792741298675537109e-01 -5.540462732315063477e-01 5.483418703079223633e-03 8.217293024063110352e-01 -5.698516368865966797e-01
4.334887862205505371e-02 -4.825654923915863037e-01 8.747865557670593262e-01 -9.861142039299011230e-01 1.198350489139556885e-01 1.149711459875106812e-01
-8.837355971336364746e-01 7.588258478790521622e-03 4.679250717163085938e-01 -2.576180174946784973e-02 9.975636601448059082e-01 -6.483173370361328125e-02
1.428941339254379272e-01 -9.070516824722290039e-01 3.960284590721130371e-01 -8.988024592399597168e-01 4.861482232809066772e-02 4.356499016284942627e-01
-4.459858871996402740e-03 8.431034684181213379e-01 -5.377328991889953613e-01 -9.346864223480224609e-01 1.876239180564880371e-01 3.019248843193054199e-01
9.031243622303009033e-03 -3.036482036113739014e-01 9.527414441108703613e-01 -9.807765483856201172e-01 -1.884182393550872803e-01 -5.075377225875854492e-02
-1.584316417574882507e-02 2.446475028991699219e-01 -9.694826602935791016e-01 -9.863241314888000488e-01 1.552635282278060913e-01 5.529890581965446472e-02
-5.492973327636718750e-01 1.800617724657058716e-01 8.159965276718139648e-01 3.159918189048767090e-01 9.487559795379638672e-01 3.356322878971695900e-03
-7.203111052513122559e-01 -6.849932074546813965e-01 -1.092531234025955200e-01 -2.494526654481887817e-01 4.027740061283111572e-01 -8.806512355804443359e-01
-1.066738888621330261e-01 -6.519442200660705566e-01 7.507259845733642578e-01 -9.795913100242614746e-01 1.982737928628921509e-01 3.299025446176528931e-02
-1.573035120964050293e-02 9.933035373687744141e-01 -1.144580021500587463e-01 -9.965188503265380859e-01 -6.201422773301601410e-03 8.313702046871185303e-02
2.034868113696575165e-02 -9.965645670890808105e-01 -8.028146624565124512e-02 -9.981375932693481445e-01 -1.563058421015739441e-02 -5.896627530455589294e-02
2.923025563359260559e-02 -8.108206093311309814e-02 9.962787628173828125e-01 -9.972884654998779297e-01 -6.970914453268051147e-02 2.358660846948623657e-02
-3.296778202056884766e-01 1.217891722917556763e-01 -9.362050890922546387e-01 -1.798991262912750244e-01 9.653706550598144531e-01 1.889334321022033691e-01
-9.632717370986938477e-01 7.965105772018432617e-02 2.564436197280883789e-01 3.681466728448867798e-02 9.851503968238830566e-01 -1.677005738019943237e-01
1.364417970180511475e-01 2.621994540095329285e-02 9.903010129928588867e-01 -1.292498260736465454e-01 9.915760755538940430e-01 -8.445914834737777710e-03
1.725863665342330933e-02 -9.923437237739562988e-01 1.222952678799629211e-01 -9.974742531776428223e-01 -2.551703527569770813e-02 -6.628733128309249878e-02
-1.774505674839019775e-01 -9.553814679384231567e-02 9.794813990592956543e-01 7.729037106037139893e-02 9.908496141433715820e-01 1.106495261192321777e-01
3.617337346076965332e-02 -9.541895389556884766e-01 -2.970081865787506104e-01 -9.870003461837768555e-01 -8.068286627531051636e-02 1.389982551336288452e-01
-5.050902366638183594e-01 7.869556546211242676e-01 3.543793559074401855e-01 -3.731875717639923096e-01 1.710958629846572876e-01 -9.118428230285644531e-01
-6.089427471160888672e-01 -7.828362584114074707e-01 -1.278915405273437500e-01 -1.018466055393218994e-02 1.689350903034210205e-01 -9.855746030807495117e-01
8.852089047431945801e-01 -1.001449674367904663e-02 4.650859534740447998e-01 1.867788732051849365e-01 9.232947826385498047e-01 -3.356196582317352295e-01
6.765573024749755859e-01 7.347794771194458008e-01 4.867630451917648315e-02 3.845636844635009766e-01 -2.961731255054473877e-01 -8.742953538894653320e-01
-9.302255511283874512e-01 -3.632230758666992188e-01 -5.243583396077156067e-02 2.531157806515693665e-02 7.904083281755447388e-02 -9.965500235557556152e-01
5.592433214187622070e-01 8.275778889656066895e-01 -4.859860241413116455e-02 2.644379436969757080e-01 -2.336427122354507446e-01 -9.356728792190551758e-01
7.015640735626220703e-01 7.537118345499038696e-02 -7.086092233657836914e-01 -7.896706461906433105e-02 9.964892864227294922e-01 2.780956029891967773e-02
-1.155356094241142273e-01 7.971618175506591797e-01 5.926082134246826172e-01 -9.458699226379394531e-01 9.386683255434036255e-02 -3.106752634048461914e-01
-2.318041026592254639e-01 7.407339215278625488e-01 6.305395364761352539e-01 -8.713781833648681641e-01 1.300089806318283081e-01 -4.730727672576904297e-01
-5.930209159851074219e-01 -7.893252968788146973e-01 -1.590339690446853638e-01 -1.526331901550292969e-02 2.084963321685791016e-01 -9.779040813446044922e-01
9.672442078590393066e-01 1.789061427116394043e-01 1.800867170095443726e-01 -1.445096731185913086e-01 9.713251590728759766e-01 -1.887972950935363770e-01
4.430866241455078125e-01 2.125212997198104858e-01 -8.709241747856140137e-01 -4.785327315330505371e-01 8.775804042816162109e-01 -2.931013889610767365e-02
-9.288126826286315918e-01 -8.477135747671127319e-02 3.607227206230163574e-01 -1.761395186185836792e-01 9.574710726737976074e-01 -2.285258173942565918e-01
-1.470858752727508545e-01 8.770226240158081055e-01 4.573806524276733398e-01 -9.399118423461914062e-01 2.011206746101379395e-02 -3.408243954181671143e-01
7.449491024017333984e-01 -6.593886017799377441e-01 -1.012795343995094299e-01 -3.900973498821258545e-01 -3.074024021625518799e-01 -8.679445981979370117e-01
2.375671081244945526e-02 -3.363431096076965332e-01 9.414398074150085449e-01 -9.829304218292236328e-01 1.639926433563232422e-01 8.339246362447738647e-02
9.456048011779785156e-01 -2.609544061124324799e-02 -3.242693841457366943e-01 1.021260768175125122e-01 9.701995253562927246e-01 2.197343856096267700e-01
2.960785329341888428e-01 4.744700789451599121e-01 -8.289847373962402344e-01 -8.627663850784301758e-01 5.052469968795776367e-01 -1.896542310714721680e-02
-7.249157875776290894e-02 9.251793622970581055e-01 -3.725428879261016846e-01 -9.973610639572143555e-01 -6.575056910514831543e-02 3.078627027571201324e-02
2.063978277146816254e-02 -9.741678833961486816e-01 2.248800098896026611e-01 -9.761716723442077637e-01 2.896252088248729706e-02 2.150583565235137939e-01
-9.156177043914794922e-01 3.960863947868347168e-01 6.899100542068481445e-02 5.070403963327407837e-02 2.839871644973754883e-01 -9.574865698814392090e-01
-1.486220657825469971e-01 -7.943459153175354004e-01 5.890042781829833984e-01 -9.762446880340576172e-01 2.289415895938873291e-02 -2.154579162597656250e-01
8.993654251098632812e-01 4.368880987167358398e-01 1.645279675722122192e-02 6.759409606456756592e-02 -1.017703339457511902e-01 -9.925088882446289062e-01
-3.673304989933967590e-02 -2.121382579207420349e-02 -9.990999102592468262e-01 1.647228375077247620e-02 9.996259808540344238e-01 -2.183061838150024414e-02
2.073751837015151978e-01 8.735690712928771973e-01 -4.403097331523895264e-01 -9.665615558624267578e-01 2.523707747459411621e-01 4.547344520688056946e-02
-3.762133121490478516e-01 8.987666964530944824e-01 2.251266241073608398e-01 -9.182249307632446289e-01 -3.941324055194854736e-01 3.902080655097961426e-02
-1.940165162086486816e-01 -5.866937637329101562e-01 -7.862239480018615723e-01 -9.617230296134948730e-01 2.718468606472015381e-01 3.446758911013603210e-02
-3.771201893687248230e-02 -9.541931748390197754e-01 2.968051135540008545e-01 -9.813759326934814453e-01 9.135022014379501343e-02 1.689866334199905396e-01
3.095397651195526123e-01 5.863199755549430847e-02 -9.490771889686584473e-01 -1.935120075941085815e-01 9.810947775840759277e-01 -2.503611147403717041e-03
-1.308878511190414429e-01 8.878124952316284180e-01 4.411999881267547607e-01 -9.434569478034973145e-01 -2.482587248086929321e-01 2.196739614009857178e-01
-5.297679305076599121e-01 -8.477175235748291016e-01 -2.685019187629222870e-02 -3.735538721084594727e-01 2.616344392299652100e-01 -8.899465799331665039e-01
7.264510393142700195e-01 3.620157018303871155e-02 -6.862641572952270508e-01 2.774460315704345703e-01 8.981610536575317383e-01 3.410724401473999023e-01
-9.615021944046020508e-01 -6.523214280605316162e-02 2.669426500797271729e-01 -6.415432691574096680e-02 9.978583455085754395e-01 1.276645436882972717e-02
3.495876789093017578e-01 4.948196932673454285e-02 -9.355960488319396973e-01 8.745034784078598022e-02 9.925214052200317383e-01 8.516868203878402710e-02
1.441153585910797119e-01 -8.221640586853027344e-01 5.507060289382934570e-01 -9.887370467185974121e-01 -1.423410922288894653e-01 4.623967409133911133e-02
-9.470447897911071777e-01 3.230738686397671700e-03 3.210852742195129395e-01 -5.817988142371177673e-02 9.816721677780151367e-01 -1.814797669649124146e-01
-9.066274762153625488e-01 -6.591093540191650391e-02 -4.167521893978118896e-01 -1.112310290336608887e-01 9.901195168495178223e-01 8.538743853569030762e-02
-2.693976461887359619e-01 -7.831713557243347168e-01 5.604172945022583008e-01 -9.230448007583618164e-01 4.404607787728309631e-02 -3.821625411510467529e-01
8.633183315396308899e-03 9.989067912101745605e-01 4.594306647777557373e-02 -9.999626874923706055e-01 8.608750067651271820e-03 7.296686526387929916e-04
8.630890846252441406e-01 3.869953453540802002e-01 3.245179355144500732e-01 -4.213503897190093994e-01 9.060069918632507324e-01 4.019014537334442139e-02
-7.431946992874145508e-01 8.173568174242973328e-03 6.690253019332885742e-01 -2.548457123339176178e-04 9.999219179153442383e-01 -1.249927096068859100e-02
-4.908444285392761230e-01 4.822940379381179810e-02 -8.699113130569458008e-01 -1.599960774183273315e-01 9.764964580535888672e-01 1.444159001111984253e-01
2.196797728538513184e-02 -9.914309978485107422e-01 -1.287710368633270264e-01 -9.989910721778869629e-01 -2.681462094187736511e-02 3.602547943592071533e-02
-6.100425124168395996e-01 9.843582287430763245e-03 -7.923076152801513672e-01 -3.619998395442962646e-01 8.860087990760803223e-01 2.897319197654724121e-01
3.952446579933166504e-02 -9.638285040855407715e-01 -2.635763883590698242e-01 -9.753079414367675781e-01 2.014820836484432220e-02 -2.199284285306930542e-01
4.271638095378875732e-01 4.121008217334747314e-01 8.048006296157836914e-01 -5.181343555450439453e-01 8.410196304321289062e-01 -1.556368470191955566e-01
-9.282335638999938965e-02 2.369047850370407104e-01 -9.670884609222412109e-01 -9.793336391448974609e-01 -1.970122456550598145e-01 4.573717340826988220e-02
7.782875895500183105e-01 -6.217730045318603516e-01 -8.756039291620254517e-02 2.625875473022460938e-01 4.489638209342956543e-01 -8.540956377983093262e-01
2.288886159658432007e-02 -9.674590229988098145e-01 2.519904375076293945e-01 -9.994788169860839844e-01 -2.788356877863407135e-02 -1.626759953796863556e-02
-9.871662855148315430e-01 8.799508213996887207e-03 1.594532728195190430e-01 -2.388220280408859253e-03 9.975556731224060059e-01 -6.983593851327896118e-02
1.387984454631805420e-01 8.742755055427551270e-01 4.651638567447662354e-01 -9.900027513504028320e-01 1.343954950571060181e-01 4.280676692724227905e-02
8.599025011062622070e-02 7.041906714439392090e-01 -7.047845125198364258e-01 -9.838787317276000977e-01 1.713594198226928711e-01 5.117269605398178101e-02
5.894372463226318359e-01 -3.437296450138092041e-01 7.310360670089721680e-01 5.385813117027282715e-01 8.416935205459594727e-01 -3.849992156028747559e-02
-5.000269412994384766e-01 4.591584578156471252e-02 -8.647917509078979492e-01 -1.793921887874603271e-01 9.714418053627014160e-01 1.553038358688354492e-01
-5.909941792488098145e-01 4.176285266876220703e-01 -6.901538372039794922e-01 1.789103150367736816e-01 9.021049141883850098e-01 3.926802873611450195e-01
-3.671303689479827881e-01 -1.132167056202888489e-01 -9.232536554336547852e-01 -3.539977595210075378e-02 9.935465455055236816e-01 -1.077599152922630310e-01
-8.336040377616882324e-01 4.584658145904541016e-01 -3.080802559852600098e-01 1.940183341503143311e-01 7.652415037155151367e-01 6.138097047805786133e-01
5.537587404251098633e-01 3.080400526523590088e-01 -7.736036777496337891e-01 -5.861982107162475586e-01 8.040405511856079102e-01 -9.945105016231536865e-02
-5.658562183380126953e-01 -8.039034605026245117e-01 -1.831555068492889404e-01 5.137660503387451172e-01 -1.700459271669387817e-01 -8.409094810485839844e-01
-2.129422128200531006e-01 1.047807335853576660e-01 9.714301824569702148e-01 -1.587880998849868774e-01 9.773045778274536133e-01 -1.402214765548706055e-01
1.269382536411285400e-01 -9.695186018943786621e-01 -2.095721364021301270e-01 -9.700462818145751953e-01 -7.722125947475433350e-02 -2.303194999694824219e-01
1.522930562496185303e-01 -1.717783361673355103e-01 9.732928872108459473e-01 6.724892556667327881e-02 9.842987060546875000e-01 1.631982028484344482e-01
-9.502084255218505859e-01 6.678640097379684448e-02 3.043742179870605469e-01 8.487569540739059448e-02 9.953023195266723633e-01 4.657735303044319153e-02
-2.268500924110412598e-01 -9.157777428627014160e-01 3.314970135688781738e-01 -9.495560526847839355e-01 1.322960853576660156e-01 -2.843255996704101562e-01
2.210107892751693726e-01 8.780897855758666992e-01 4.243966937065124512e-01 -9.413856267929077148e-01 3.057850599288940430e-01 -1.424383521080017090e-01
-8.829221725463867188e-01 -4.013647325336933136e-03 -4.695022404193878174e-01 1.704011708498001099e-01 9.290444254875183105e-01 -3.283899426460266113e-01
9.132880568504333496e-01 1.337274815887212753e-02 -4.070948362350463867e-01 1.185732260346412659e-01 9.474450945854187012e-01 2.971334159374237061e-01
-1.069290041923522949e-01 6.207461357116699219e-01 -7.766855955123901367e-01 -9.937317371368408203e-01 -9.234323352575302124e-02 6.300753355026245117e-02
5.285834074020385742e-01 3.614772576838731766e-03 8.488737344741821289e-01 -5.256339907646179199e-03 9.999856948852539062e-01 -9.851956274360418320e-04
9.038647264242172241e-02 9.832211732864379883e-01 1.584499776363372803e-01 -9.887771606445312500e-01 6.959284842014312744e-02 1.321989297866821289e-01
9.634048938751220703e-01 2.604948282241821289e-01 -6.319420039653778076e-02 -2.548100054264068604e-01 9.631819128990173340e-01 8.574701100587844849e-02
6.999371647834777832e-01 -7.132583260536193848e-01 -3.675042837858200073e-02 -9.821185469627380371e-02 -4.515480995178222656e-02 -9.941405653953552246e-01
-4.759410768747329712e-02 -2.972762584686279297e-01 9.536045193672180176e-01 -6.874438375234603882e-02 9.533976912498474121e-01 2.937807738780975342e-01
9.392890930175781250e-01 7.259698119014501572e-03 3.430500328540802002e-01 -3.721076995134353638e-02 9.960349798202514648e-01 8.080675452947616577e-02
-8.356589674949645996e-01 2.607120275497436523e-01 4.834288060665130615e-01 3.442107141017913818e-01 9.344672560691833496e-01 9.104941040277481079e-02
9.315943717956542969e-01 3.602684736251831055e-01 4.835897311568260193e-02 8.705339580774307251e-02 -9.195572882890701294e-02 -9.919505119323730469e-01
1.558535397052764893e-01 2.760128676891326904e-01 -9.484337568283081055e-01 -9.388161897659301758e-01 3.399433195590972900e-01 -5.534289777278900146e-02
1.709438115358352661e-02 -8.192851543426513672e-01 5.731315016746520996e-01 -9.978132843971252441e-01 2.262509800493717194e-02 6.210339069366455078e-02
6.512254476547241211e-01 1.202225387096405029e-01 -7.493010759353637695e-01 -1.297331601381301880e-01 9.904736876487731934e-01 4.616532847285270691e-02
9.407347440719604492e-02 -6.569632794708013535e-03 -9.955436587333679199e-01 5.921622738242149353e-02 9.982447624206542969e-01 -9.918455034494400024e-04
-5.729984641075134277e-01 3.527358174324035645e-01 7.397636771202087402e-01 5.190799236297607422e-01 8.547081351280212402e-01 -5.480319261550903320e-03
1.584594994783401489e-01 -9.551214575767517090e-01 -2.502671480178833008e-01 -9.667705297470092773e-01 -2.015873789787292480e-01 1.572177112102508545e-01
-9.586513638496398926e-01 9.821734391152858734e-03 2.844136953353881836e-01 5.581850558519363403e-02 9.864809513092041016e-01 1.540767252445220947e-01
6.125651001930236816e-01 4.276274740695953369e-01 6.647546887397766113e-01 -1.591300368309020996e-01 8.905141353607177734e-01 -4.262185692787170410e-01
-4.696196410804986954e-03 -2.450740933418273926e-01 9.694930315017700195e-01 -9.991464614868164062e-01 4.094010591506958008e-02 5.509241018444299698e-03
-1.202571764588356018e-01 -9.529355764389038086e-01 -2.783020436763763428e-01 -9.912175536155700684e-01 1.307913810014724731e-01 -1.952821016311645508e-02
-7.421159148216247559e-01 -3.319966420531272888e-02 6.694488525390625000e-01 -3.222241401672363281e-01 8.934597373008728027e-01 -3.128918707370758057e-01
-3.109604492783546448e-02 6.966651678085327148e-01 7.167222499847412109e-01 -9.979553818702697754e-01 1.842057332396507263e-02 -6.120284274220466614e-02
-1.430297642946243286e-01 7.612898945808410645e-01 -6.324398517608642578e-01 -9.803574681282043457e-01 -2.129844017326831818e-02 1.960755884647369385e-01
-1.499315351247787476e-01 9.801926016807556152e-01 -1.293947994709014893e-01 -9.883748292922973633e-01 -1.519314348697662354e-01 -5.668668542057275772e-03
7.012443542480468750e-01 -2.359680384397506714e-01 -6.727373003959655762e-01 3.429191708564758301e-01 9.389442801475524902e-01 2.810794115066528320e-02
1.495505571365356445e-01 8.994799256324768066e-01 4.105734229087829590e-01 -8.988428711891174316e-01 -4.933547973632812500e-02 4.354853630065917969e-01
9.075031876564025879e-01 1.940632313489913940e-01 -3.725285828113555908e-01 -2.502082586288452148e-01 9.621131420135498047e-01 -1.083245202898979187e-01
9.122788310050964355e-01 1.373213529586791992e-01 -3.858630061149597168e-01 -2.245294898748397827e-01 9.556134343147277832e-01 -1.907603591680526733e-01
3.758661448955535889e-01 8.042137622833251953e-01 4.603964984416961670e-01 -9.183017015457153320e-01 3.898822069168090820e-01 6.865788251161575317e-02
3.155932426452636719e-01 8.195019960403442383e-01 -4.783486425876617432e-01 -8.659028410911560059e-01 4.254321753978729248e-02 -4.983997941017150879e-01
6.345412731170654297e-01 -7.495209574699401855e-01 1.886152625083923340e-01 4.935969710350036621e-01 2.052005976438522339e-01 -8.451359272003173828e-01
-4.879880249500274658e-01 -8.696907162666320801e-01 -7.420112937688827515e-02 4.272581264376640320e-02 6.110780686140060425e-02 -9.972163438796997070e-01
3.866057097911834717e-01 -7.800723910331726074e-01 4.919585287570953369e-01 -9.078903198242187500e-01 -4.156679809093475342e-01 5.436311662197113037e-02
-9.415873289108276367e-01 6.008256971836090088e-02 3.313660323619842529e-01 6.030664220452308655e-02 9.981335997581481934e-01 -9.616129100322723389e-03
9.431334137916564941e-01 -2.867050282657146454e-02 -3.311758041381835938e-01 8.269600570201873779e-03 9.979888796806335449e-01 -6.284730136394500732e-02
7.067298293113708496e-01 -1.025916859507560730e-01 7.000056505203247070e-01 3.744520246982574463e-01 8.937247991561889648e-01 -2.470660805702209473e-01
3.185652494430541992e-01 -7.636163234710693359e-01 5.616105198860168457e-01 -8.775404095649719238e-01 -4.615877568721771240e-01 -1.298445910215377808e-01
-7.253607511520385742e-01 2.565336525440216064e-01 6.387819647789001465e-01 2.775236964225769043e-01 9.581894278526306152e-01 -6.966850161552429199e-02
-2.850512042641639709e-02 9.668353199958801270e-01 -2.538050413131713867e-01 -9.973103404045104980e-01 -1.035585254430770874e-02 7.255978882312774658e-02
5.065762251615524292e-02 5.956982374191284180e-01 -8.016092777252197266e-01 -9.633627533912658691e-01 2.408123910427093506e-01 1.180747672915458679e-01
-8.058828711509704590e-01 5.720092058181762695e-01 1.528339684009552002e-01 6.427156925201416016e-02 3.411236703395843506e-01 -9.378187060356140137e-01
-1.806153506040573120e-01 -6.912518143653869629e-01 6.996778249740600586e-01 -9.807092547416687012e-01 7.250689715147018433e-02 -1.815273016691207886e-01
9.719825387001037598e-01 2.336060553789138794e-01 -2.604233846068382263e-02 -7.003291696310043335e-02 1.820528954267501831e-01 -9.807915687561035156e-01
-8.194851875305175781e-01 -3.582363128662109375e-01 -4.473374485969543457e-01 -3.003331124782562256e-01 9.332339763641357422e-01 -1.971660554409027100e-01
9.389633536338806152e-01 2.749862074851989746e-01 -2.067133933305740356e-01 -2.140903025865554810e-01 -3.259968012571334839e-03 -9.768084287643432617e-01
-4.724475443363189697e-01 7.555026412010192871e-01 4.538822472095489502e-01 -6.324372887611389160e-01 6.807226687669754028e-02 -7.716147303581237793e-01
-7.256479859352111816e-01 -4.850906431674957275e-01 -4.879775643348693848e-01 -2.253473252058029175e-01 8.376365900039672852e-01 -4.975777566432952881e-01
-8.457522926619276404e-05 -2.166996449232101440e-01 9.762383103370666504e-01 -9.955389499664306641e-01 9.212779998779296875e-02 2.036374062299728394e-02
4.995819032192230225e-01 4.808466136455535889e-01 -7.205585241317749023e-01 -6.322328448295593262e-01 7.710241079330444336e-01 7.618003338575363159e-02
5.977826118469238281e-01 -8.228959888219833374e-02 7.974236607551574707e-01 -5.607795342803001404e-02 9.879884719848632812e-01 1.439932137727737427e-01
-9.647265672683715820e-01 4.092696588486433029e-03 -2.632222771644592285e-01 5.588922277092933655e-02 9.802703261375427246e-01 -1.895959079265594482e-01
5.782017707824707031e-01 7.018309831619262695e-02 -8.128696680068969727e-01 -2.279407083988189697e-01 9.705182313919067383e-01 -7.834189385175704956e-02
-9.720435142517089844e-01 2.243254780769348145e-01 6.935098022222518921e-02 -7.340237498283386230e-02 -9.761319495737552643e-03 -9.972546696662902832e-01
2.547762356698513031e-02 -9.635009169578552246e-01 -2.664901316165924072e-01 -9.984673261642456055e-01 -3.762790188193321228e-02 4.058665037155151367e-02
7.470098733901977539e-01 -5.896754264831542969e-01 3.070164918899536133e-01 4.717121422290802002e-01 1.447093784809112549e-01 -8.697970509529113770e-01
8.850919604301452637e-01 7.901363819837570190e-02 4.586600661277770996e-01 -4.813455045223236084e-02 9.957395792007446289e-01 -7.864975184202194214e-02
3.194843977689743042e-02 -9.551364779472351074e-01 2.944377660751342773e-01 -9.938651919364929199e-01 8.490625768899917603e-04 1.105952337384223938e-01
6.823289990425109863e-01 -1.693940311670303345e-01 7.111489772796630859e-01 2.844567298889160156e-01 9.576405882835388184e-01 -4.482112824916839600e-02
4.723723512142896652e-03 9.989860057830810547e-01 4.477431997656822205e-02 -9.999532103538513184e-01 4.340508952736854553e-03 8.652151562273502350e-03
-9.847381711006164551e-01 1.654964834451675415e-01 5.386741831898689270e-02 -6.580149382352828979e-02 -6.749185919761657715e-02 -9.955475926399230957e-01
1.725845038890838623e-01 -2.061902545392513275e-02 9.847789406776428223e-01 6.374873965978622437e-02 9.979186058044433594e-01 9.722045622766017914e-03
5.106692761182785034e-02 3.507042825222015381e-01 -9.350929260253906250e-01 -9.687438011169433594e-01 2.449824512004852295e-01 3.897541016340255737e-02
-1.151300743222236633e-01 8.588128089904785156e-01 4.991849362850189209e-01 -9.922429323196411133e-01 -1.231492981314659119e-01 -1.697727665305137634e-02
-8.244804739952087402e-01 -4.929621219635009766e-01 -2.778854966163635254e-01 -3.064847588539123535e-01 8.017924427986145020e-01 -5.130262970924377441e-01
-6.377945542335510254e-01 -7.052202224731445312e-01 3.096492588520050049e-01 -2.178215831518173218e-01 -2.204663753509521484e-01 -9.507620334625244141e-01
-3.454233109951019287e-01 8.589094877243041992e-01 -3.780970573425292969e-01 6.186065077781677246e-01 -9.457357227802276611e-02 -7.799882888793945312e-01
-5.284277796745300293e-01 6.074419617652893066e-01 -5.931090712547302246e-01 -7.594045996665954590e-01 -6.505366563796997070e-01 1.033067703247070312e-02
9.246206283569335938e-01 8.106627315282821655e-02 -3.721625506877899170e-01 5.603542178869247437e-02 9.375053048133850098e-01 3.434294760227203369e-01
2.759189009666442871e-01 5.349361300468444824e-01 -7.985688447952270508e-01 -9.542247056961059570e-01 2.522230446338653564e-01 -1.607443541288375854e-01
-9.981983304023742676e-01 -3.045606613159179688e-02 5.169738084077835083e-02 -3.181869164109230042e-02 9.991621375083923340e-01 -2.574253641068935394e-02
-9.462782144546508789e-01 -1.735130511224269867e-02 -3.228878378868103027e-01 2.838477725163102150e-03 9.980750679969787598e-01 -6.195307895541191101e-02
2.435230016708374023e-01 4.423912763595581055e-01 -8.631260395050048828e-01 -9.176917672157287598e-01 3.931208848953247070e-01 -5.742586404085159302e-02
8.888791799545288086e-01 6.146129220724105835e-02 -4.540003538131713867e-01 -5.169840529561042786e-02 9.980872869491577148e-01 3.389886021614074707e-02
7.044477462768554688e-01 7.097498774528503418e-01 -2.908025169745087624e-03 -3.079158663749694824e-01 3.019188642501831055e-01 -9.022377729415893555e-01
-1.297595053911209106e-01 7.202429771423339844e-01 6.814782619476318359e-01 -9.448015093803405762e-01 1.187243163585662842e-01 -3.053763210773468018e-01
1.313827633857727051e-01 -9.747703671455383301e-01 -1.804477721452713013e-01 -1.595839411020278931e-01 1.588550508022308350e-01 -9.743192791938781738e-01
-6.937808990478515625e-01 6.628489494323730469e-01 2.816014885902404785e-01 -4.820096790790557861e-01 -1.368447691202163696e-01 -8.654133677482604980e-01
-9.677100926637649536e-02 9.739736318588256836e-01 -2.049653232097625732e-01 -9.769825339317321777e-01 -5.361984297633171082e-02 2.064704298973083496e-01
-1.588205546140670776e-01 8.895871043205261230e-01 4.282648861408233643e-01 -9.846828579902648926e-01 -1.111127659678459167e-01 -1.343640089035034180e-01
-9.949436187744140625e-01 -1.921584457159042358e-02 9.857971966266632080e-02 -1.355023961514234543e-02 9.982348680496215820e-01 5.782326310873031616e-02
3.015235438942909241e-02 -2.568712532520294189e-01 9.659751653671264648e-01 -9.850412011146545410e-01 1.564009934663772583e-01 7.233750075101852417e-02
-3.583491593599319458e-02 6.134689450263977051e-01 -7.889054417610168457e-01 -9.992014169692993164e-01 -3.595833480358123779e-02 1.742537692189216614e-02
1.215360984206199646e-01 -7.419732213020324707e-01 6.593214273452758789e-01 -9.672466516494750977e-01 6.060320883989334106e-02 2.464978992938995361e-01
3.599446639418601990e-02 -1.837968081235885620e-01 9.823049902915954590e-01 -9.929530024528503418e-01 -1.176339462399482727e-01 1.437442004680633545e-02
8.909207582473754883e-01 -7.956271991133689880e-03 4.540890753269195557e-01 -1.789091825485229492e-01 9.128487110137939453e-01 3.670133650302886963e-01
7.934440374374389648e-01 -6.673969328403472900e-02 6.049730777740478516e-01 -6.816229224205017090e-02 9.779735207557678223e-01 1.972858458757400513e-01
7.179709076881408691e-01 -6.960684657096862793e-01 2.547901822254061699e-03 8.690713346004486084e-02 8.600878715515136719e-02 -9.924966692924499512e-01
4.865031838417053223e-01 -4.009186625480651855e-01 7.762595415115356445e-01 -7.169859409332275391e-01 -6.909217834472656250e-01 9.251099824905395508e-02
-9.406903386116027832e-01 -3.093066513538360596e-01 -1.393959373235702515e-01 1.635384708642959595e-01 -5.341467261314392090e-02 -9.850898385047912598e-01
9.347556233406066895e-01 1.065633222460746765e-01 -3.389340341091156006e-01 -3.557150065898895264e-02 9.772371053695678711e-01 2.091468125581741333e-01
-6.950079798698425293e-01 2.085204422473907471e-02 7.186996340751647949e-01 -2.347984462976455688e-01 9.381961822509765625e-01 -2.542788386344909668e-01
-1.605754047632217407e-01 9.555728435516357422e-01 2.471762597560882568e-01 -9.845106005668640137e-01 -1.729218363761901855e-01 2.893175557255744934e-02
3.640927970409393311e-01 9.312878847122192383e-01 -1.180749572813510895e-02 1.242750287055969238e-01 -6.114257499575614929e-02 -9.903622269630432129e-01
1.088586915284395218e-02 7.864464521408081055e-01 -6.175625324249267578e-01 -9.702007174491882324e-01 1.578107327222824097e-01 1.838651150465011597e-01
-6.352087855339050293e-01 5.295642614364624023e-01 5.622023940086364746e-01 6.008767485618591309e-01 7.961776852607727051e-01 -7.105106115341186523e-02
-8.776880502700805664e-01 -4.730131626129150391e-01 7.695599645376205444e-02 -2.359052747488021851e-01 2.866623699665069580e-01 -9.285329580307006836e-01
5.914296582341194153e-02 -6.889289617538452148e-01 7.224119305610656738e-01 -9.959822297096252441e-01 -8.947125077247619629e-02 -3.784530097618699074e-03
-3.313436508178710938e-01 -3.198139369487762451e-01 -8.876544833183288574e-01 -1.640550792217254639e-01 9.459978938102722168e-01 -2.795960605144500732e-01
-7.297715544700622559e-01 -2.902021706104278564e-01 6.190445423126220703e-01 -4.024448990821838379e-01 9.142970442771911621e-01 -4.581553116440773010e-02
8.437804579734802246e-01 5.300241112709045410e-01 -8.431493490934371948e-02 -2.203869670629501343e-01 1.989440619945526123e-01 -9.549088478088378906e-01
-6.748802214860916138e-02 7.897516489028930664e-01 -6.097030639648437500e-01 -9.973577857017517090e-01 -6.986885517835617065e-02 1.989602670073509216e-02
-9.509763866662979126e-02 6.789606809616088867e-01 -7.279895544052124023e-01 -9.937230944633483887e-01 -1.080283150076866150e-01 2.905776165425777435e-02
-5.329779163002967834e-02 -4.709233641624450684e-01 8.805626630783081055e-01 -9.791545867919921875e-01 1.977271437644958496e-01 4.647885262966156006e-02
-8.515828847885131836e-01 2.146168947219848633e-01 4.782742559909820557e-01 3.279332816600799561e-01 9.298903346061706543e-01 1.666244864463806152e-01
-9.774138927459716797e-01 -3.958943486213684082e-02 -2.075927555561065674e-01 1.827389001846313477e-03 9.806768894195556641e-01 -1.956260800361633301e-01
-2.356292214244604111e-03 9.973836541175842285e-01 -7.225169241428375244e-02 -9.991170167922973633e-01 -5.378957372158765793e-03 -4.166924208402633667e-02
3.261730074882507324e-01 -9.358411431312561035e-01 1.334639191627502441e-01 2.963772602379322052e-02 -1.309920251369476318e-01 -9.909403324127197266e-01
3.505371212959289551e-01 4.185302853584289551e-01 8.378282785415649414e-01 -4.166944026947021484e-01 8.708643913269042969e-01 -2.606933116912841797e-01
9.405816793441772461e-01 6.690391153097152710e-02 -3.329113721847534180e-01 -7.737020403146743774e-02 9.968351721763610840e-01 -1.826559938490390778e-02
-5.080016851425170898e-01 -8.613528609275817871e-01 2.363764215260744095e-03 7.965704053640365601e-02 -4.971159994602203369e-02 -9.955820441246032715e-01
-3.175303339958190918e-01 6.317241191864013672e-01 -7.071768641471862793e-01 -8.966320157051086426e-01 -4.427193701267242432e-01 7.114708423614501953e-03
6.283669471740722656e-01 1.278327107429504395e-01 -7.673420310020446777e-01 -4.801098704338073730e-01 8.398587107658386230e-01 -2.532426714897155762e-01
7.431963086128234863e-01 1.044392660260200500e-01 -6.608719825744628906e-01 -3.023834228515625000e-01 9.335415959358215332e-01 -1.925211846828460693e-01
2.340619266033172607e-02 -9.828870892524719238e-01 1.827161312103271484e-01 -9.990070462226867676e-01 -1.606502756476402283e-02 4.155541211366653442e-02
2.750351130962371826e-01 5.478094145655632019e-02 9.598722457885742188e-01 1.266099363565444946e-01 9.876170158386230469e-01 -9.264229238033294678e-02
-8.577577471733093262e-01 -5.055273175239562988e-01 9.324106574058532715e-02 -8.076907135546207428e-03 -1.681076586246490479e-01 -9.857355952262878418e-01
1.204585880041122437e-01 7.874277830123901367e-01 -6.045223474502563477e-01 -9.150227904319763184e-01 -1.480964422225952148e-01 -3.752344548702239990e-01
4.600934982299804688e-01 8.695288896560668945e-01 1.795371323823928833e-01 1.193588227033615112e-02 1.961352825164794922e-01 -9.805042147636413574e-01
2.102211676537990570e-02 8.657811284065246582e-01 4.999812245368957520e-01 -9.628753662109375000e-01 1.521503776311874390e-01 -2.229828387498855591e-01
5.179059505462646484e-01 -1.593721359968185425e-01 8.404605984687805176e-01 -4.823689535260200500e-02 9.754879474639892578e-01 2.147010415792465210e-01
-1.929527372121810913e-01 -1.366528421640396118e-01 -9.716456532478332520e-01 1.146281212568283081e-01 9.803345799446105957e-01 -1.606380939483642578e-01
6.310707926750183105e-01 7.673728466033935547e-01 1.135278195142745972e-01 -8.047670125961303711e-04 1.469981223344802856e-01 -9.891364574432373047e-01
3.573071062564849854e-01 6.403462886810302734e-01 -6.799179315567016602e-01 -9.147033095359802246e-01 9.274978935718536377e-02 -3.933387100696563721e-01
9.438117742538452148e-01 -4.877441376447677612e-02 3.268646001815795898e-01 1.310170590877532959e-01 9.632283449172973633e-01 -2.345758974552154541e-01
5.388676524162292480e-01 -8.279408812522888184e-01 1.553565412759780884e-01 4.829008281230926514e-01 1.524945348501205444e-01 -8.622947335243225098e-01
-2.822284214198589325e-02 8.263139724731445312e-01 5.625022649765014648e-01 -9.779834747314453125e-01 -1.392242014408111572e-01 1.554508209228515625e-01
5.430035293102264404e-02 9.749394655227661133e-01 2.157417833805084229e-01 -9.977121949195861816e-01 4.426066204905509949e-02 5.110115185379981995e-02
-5.822767019271850586e-01 8.050848245620727539e-01 1.131034940481185913e-01 -2.226444184780120850e-01 -2.410900592803955078e-02 -9.746015667915344238e-01
-5.797543004155158997e-02 8.569814562797546387e-01 -5.120759010314941406e-01 -9.539242386817932129e-01 -1.988146007061004639e-01 -2.247249931097030640e-01
6.864590197801589966e-02 9.808830022811889648e-01 1.820889264345169067e-01 -9.852642416954040527e-01 3.799449652433395386e-02 1.667657494544982910e-01
3.926799893379211426e-01 -5.440675020217895508e-01 -7.414802312850952148e-01 -7.661238312721252441e-01 -6.395443081855773926e-01 6.354019045829772949e-02
-6.536595225334167480e-01 5.344433784484863281e-01 -5.358167886734008789e-01 -6.606089472770690918e-01 -5.752153694629669189e-02 7.485232949256896973e-01
-6.957439184188842773e-01 -6.844431161880493164e-01 2.178946286439895630e-01 -3.629381358623504639e-01 7.320169359445571899e-02 -9.289335012435913086e-01
8.690567016601562500e-01 4.056495726108551025e-01 2.831763923168182373e-01 -2.281198650598526001e-01 8.365102410316467285e-01 -4.982087016105651855e-01
4.919553399085998535e-01 5.070098862051963806e-02 -8.691428899765014648e-01 -1.993967294692993164e-01 9.783293008804321289e-01 -5.579292774200439453e-02
8.522382974624633789e-01 5.093371272087097168e-01 1.194392740726470947e-01 -4.785966873168945312e-01 8.512608408927917480e-01 -2.151751071214675903e-01
-8.831483125686645508e-01 -4.689904749393463135e-01 -9.851087816059589386e-03 -6.063089519739151001e-02 1.349467933177947998e-01 -9.889960885047912598e-01
-1.886493116617202759e-01 8.693398833274841309e-01 -4.567927420139312744e-01 -9.676241278648376465e-01 -2.439659684896469116e-01 -6.468514353036880493e-02
-9.312039017677307129e-01 3.354368731379508972e-02 3.629521131515502930e-01 9.095977246761322021e-02 9.856385588645935059e-01 1.422780901193618774e-01
4.016799107193946838e-02 8.105053901672363281e-01 5.843523144721984863e-01 -9.943100214004516602e-01 -2.532333880662918091e-02 1.034720614552497864e-01
-7.277783155441284180e-01 6.800266504287719727e-01 8.889562636613845825e-02 2.255820631980895996e-01 3.597743511199951172e-01 -9.053591489791870117e-01
9.497214555740356445e-01 4.224374890327453613e-02 3.102330863475799561e-01 -1.091316267848014832e-01 9.733810424804687500e-01 2.015432715415954590e-01
-1.560748219490051270e-01 7.334646582603454590e-01 -6.615666151046752930e-01 -9.575331807136535645e-01 -2.767368853092193604e-01 -8.091385662555694580e-02
-5.713908672332763672e-01 -3.645564019680023193e-01 -7.352626919746398926e-01 -3.816241621971130371e-01 9.111921191215515137e-01 -1.552158296108245850e-01
3.112462162971496582e-01 -8.644380569458007812e-01 -3.948071897029876709e-01 -9.020482301712036133e-01 -3.994665145874023438e-01 1.635101288557052612e-01
9.685490131378173828e-01 1.505427248775959015e-02 2.483672648668289185e-01 -4.976439476013183594e-02 9.897210001945495605e-01 1.340745389461517334e-01
7.078541517257690430e-01 8.476953953504562378e-02 7.012537121772766113e-01 -1.001315787434577942e-01 9.947893619537353516e-01 -1.917892321944236755e-02
1.376579105854034424e-01 9.470629692077636719e-01 2.900381386280059814e-01 -9.457929730415344238e-01 3.872181847691535950e-02 3.224537372589111328e-01
-1.050586812198162079e-02 9.631602764129638672e-01 2.687227427959442139e-01 -9.878967404365539551e-01 3.159378096461296082e-02 -1.518613100051879883e-01
-6.704568397253751755e-03 4.201126992702484131e-01 9.074472188949584961e-01 -9.954628944396972656e-01 -8.893770724534988403e-02 3.381982818245887756e-02
-5.763261914253234863e-01 6.036076545715332031e-01 5.509137511253356934e-01 -6.429422497749328613e-01 8.122651278972625732e-02 -7.615954279899597168e-01
-9.489799141883850098e-01 -2.984303534030914307e-01 -1.018652990460395813e-01 7.941351085901260376e-02 8.644959330558776855e-02 -9.930860996246337891e-01
8.918704390525817871e-01 4.392154812812805176e-01 1.079675480723381042e-01 -5.831855535507202148e-02 3.483933210372924805e-01 -9.355325102806091309e-01
9.870398044586181641e-01 2.862535975873470306e-02 -1.579017043113708496e-01 -4.764154553413391113e-02 9.918708205223083496e-01 -1.179938986897468567e-01
5.491101145744323730e-01 8.392883837223052979e-02 -8.315251469612121582e-01 1.763918995857238770e-01 9.608936905860900879e-01 2.134695053100585938e-01
8.354043960571289062e-01 -5.496346354484558105e-01 -1.106786075979471207e-03 3.457790613174438477e-02 5.456535518169403076e-02 -9.979113340377807617e-01
3.052755296230316162e-01 -6.078724861145019531e-01 7.330060601234436035e-01 -9.405649304389953613e-01 -7.218789309263229370e-02 3.318532407283782959e-01
-9.733152389526367188e-01 2.228677719831466675e-01 5.465749651193618774e-02 -1.664910465478897095e-02 1.689747720956802368e-01 -9.854797720909118652e-01
3.343280553817749023e-01 4.304380118846893311e-01 8.384199142456054688e-01 -5.163487792015075684e-01 8.278703093528747559e-01 -2.191228866577148438e-01
5.290531516075134277e-01 -4.814996570348739624e-02 8.472216129302978516e-01 -1.330214589834213257e-01 9.813405275344848633e-01 1.388384550809860229e-01
-2.423687875270843506e-01 7.474105954170227051e-01 -6.185748577117919922e-01 -9.663518667221069336e-01 -2.425931543111801147e-01 8.551406860351562500e-02
-9.834648966789245605e-01 1.289485394954681396e-01 -1.271580308675765991e-01 1.236224323511123657e-01 9.911209344863891602e-01 4.895694181323051453e-02
3.736667633056640625e-01 6.147490739822387695e-01 -6.945910453796386719e-01 -8.560299873352050781e-01 -5.981388688087463379e-02 -5.134539604187011719e-01
1.886410713195800781e-01 -5.869621634483337402e-01 7.873309850692749023e-01 -9.710406661033630371e-01 8.204371668398380280e-03 2.387735247611999512e-01
1.839538663625717163e-02 9.172119498252868652e-01 3.979746699333190918e-01 -9.947984814643859863e-01 5.667613074183464050e-02 -8.463936299085617065e-02
-2.855114936828613281e-01 8.490885496139526367e-01 4.444455504417419434e-01 -9.407856464385986328e-01 -3.367526531219482422e-01 3.898722678422927856e-02
-8.433343768119812012e-01 1.540216803550720215e-01 5.148442387580871582e-01 1.264404058456420898e-01 9.880217313766479492e-01 -8.846405893564224243e-02
4.597822204232215881e-02 -2.518309950828552246e-01 9.666784405708312988e-01 -9.950110316276550293e-01 -9.731497615575790405e-02 2.197412587702274323e-02
2.905770540237426758e-01 -8.601341843605041504e-01 4.192066192626953125e-01 -9.346746802330017090e-01 -3.489288389682769775e-01 -6.805849075317382812e-02
1.804454773664474487e-01 9.597959518432617188e-01 2.150143086910247803e-01 -9.829562306404113770e-01 1.681533604860305786e-01 7.430709898471832275e-02
-1.042989199049770832e-03 9.938516020774841309e-01 1.107155531644821167e-01 -9.989789128303527832e-01 -6.036302540451288223e-03 4.477478936314582825e-02
2.045902311801910400e-01 7.448031306266784668e-01 -6.351465582847595215e-01 -9.135941863059997559e-01 -8.765241503715515137e-02 -3.970677256584167480e-01
-1.035588532686233521e-01 -8.936846256256103516e-01 4.365815222263336182e-01 -9.881816506385803223e-01 4.257089272141456604e-02 -1.472577452659606934e-01
9.078367948532104492e-01 -4.042014852166175842e-02 -4.173709750175476074e-01 1.142379269003868103e-01 9.815346002578735352e-01 1.534261256456375122e-01
3.971194848418235779e-03 -9.273764491081237793e-01 -3.741085231304168701e-01 -9.999588727951049805e-01 -6.735433358699083328e-03 6.081792991608381271e-03
1.705308258533477783e-02 -9.317842125892639160e-01 3.626119792461395264e-01 -9.925505518913269043e-01 2.798016183078289032e-02 1.185772344470024109e-01
8.256246447563171387e-01 -8.580299466848373413e-02 5.576574206352233887e-01 -1.819485723972320557e-01 8.950783610343933105e-01 4.070987701416015625e-01
6.783134341239929199e-01 1.128828600049018860e-01 -7.260499000549316406e-01 -1.099866405129432678e-01 9.925944209098815918e-01 5.156874284148216248e-02
-9.778269529342651367e-01 -2.059677094221115112e-01 3.783982992172241211e-02 -3.649746999144554138e-02 -1.031420193612575531e-02 -9.992805123329162598e-01
4.556337296962738037e-01 5.612784996628761292e-02 -8.883960843086242676e-01 -2.221058309078216553e-01 9.736135005950927734e-01 -5.240012705326080322e-02
-7.386044859886169434e-01 -2.328983880579471588e-02 6.737366318702697754e-01 -3.408350944519042969e-01 8.751624226570129395e-01 -3.433981537818908691e-01
-9.793071150779724121e-01 1.101587712764739990e-01 -1.697722226381301880e-01 1.120814308524131775e-01 9.936975240707397461e-01 -1.753147807903587818e-03
-7.274166345596313477e-01 -4.047299623489379883e-01 -5.541287660598754883e-01 -2.764184772968292236e-01 9.119493961334228516e-01 -3.032180666923522949e-01
-9.747752547264099121e-01 -4.739753901958465576e-03 -2.231384366750717163e-01 2.206299640238285065e-02 9.928312897682189941e-01 -1.174707338213920593e-01
7.559816241264343262e-01 6.193605661392211914e-01 2.118590623140335083e-01 4.726831614971160889e-02 2.711538076400756836e-01 -9.613747596740722656e-01
4.557718932628631592e-01 6.902381777763366699e-01 5.619993805885314941e-01 -7.713487148284912109e-01 -8.794486522674560547e-03 6.363518834114074707e-01
3.129954636096954346e-01 -7.936475276947021484e-01 -5.216872096061706543e-01 -8.926480412483215332e-01 -4.334190189838409424e-01 1.238044425845146179e-01
6.779075264930725098e-01 1.016927063465118408e-01 -7.280797362327575684e-01 -2.609554231166839600e-01 9.591771960258483887e-01 -1.090022400021553040e-01
7.995703816413879395e-01 5.952128171920776367e-01 -8.005613833665847778e-02 1.487035900354385376e-01 -3.253583014011383057e-01 -9.338250756263732910e-01
9.243451952934265137e-01 -3.936482593417167664e-02 -3.795212507247924805e-01 8.767802268266677856e-03 9.965925812721252441e-01 -8.201442658901214600e-02
-3.435090184211730957e-01 -7.587783038616180420e-02 -9.360791444778442383e-01 2.880829572677612305e-02 9.954104423522949219e-01 -9.125884622335433960e-02
4.397435486316680908e-01 5.961046218872070312e-01 6.717774271965026855e-01 -8.267941474914550781e-01 5.608142614364624023e-01 4.357615485787391663e-02
3.263367339968681335e-02 8.433085083961486816e-01 5.364381074905395508e-01 -9.992536902427673340e-01 3.862818703055381775e-02 6.309152377070859075e-05
6.156914234161376953e-01 3.024873733520507812e-01 -7.276163697242736816e-01 -5.034085512161254883e-01 8.613783717155456543e-01 -6.787680089473724365e-02
2.397600114345550537e-01 7.788129448890686035e-01 -5.796254277229309082e-01 -9.440881609916687012e-01 3.262106478214263916e-01 4.779375344514846802e-02
-3.368037641048431396e-01 -9.366177320480346680e-01 9.649068117141723633e-02 -2.383774816989898682e-01 -1.432012021541595459e-02 -9.710670113563537598e-01
7.939600944519042969e-01 4.179492294788360596e-01 4.415265321731567383e-01 -4.425311684608459473e-01 8.952621817588806152e-01 -5.168888717889785767e-02
-1.331816520541906357e-02 9.610101580619812012e-01 2.761920988559722900e-01 -9.866477847099304199e-01 3.221010044217109680e-02 -1.596518307924270630e-01
-3.760705003514885902e-03 -9.878494143486022949e-01 -1.553686112165451050e-01 -9.988169670104980469e-01 -3.822223050519824028e-03 4.847850278019905090e-02
4.456580057740211487e-02 -9.844235777854919434e-01 -1.700707376003265381e-01 -9.967424273490905762e-01 -5.527051910758018494e-02 5.873424932360649109e-02
-7.603663951158523560e-02 -5.232203751802444458e-02 -9.957312941551208496e-01 1.037339214235544205e-03 9.986175894737243652e-01 -5.255291238427162170e-02
9.013960957527160645e-01 1.783841401338577271e-01 -3.945430219173431396e-01 -1.640336215496063232e-01 9.839597344398498535e-01 7.011537998914718628e-02
3.234577178955078125e-01 7.467138767242431641e-02 -9.432917833328247070e-01 -2.468964159488677979e-01 9.690092802047729492e-01 -7.954367436468601227e-03
-9.910646080970764160e-01 -2.997720055282115936e-02 -1.299709230661392212e-01 -1.352896913886070251e-02 9.919843673706054688e-01 -1.256345063447952271e-01
-1.183761656284332275e-01 8.621300458908081055e-01 4.926650822162628174e-01 -9.902638792991638184e-01 -1.390956938266754150e-01 5.470134317874908447e-03
2.010572403669357300e-01 6.878353953361511230e-01 -6.974657773971557617e-01 -9.732952713966369629e-01 5.975113809108734131e-02 -2.216440141201019287e-01
7.861932516098022461e-01 -1.170818582177162170e-01 6.067884564399719238e-01 1.024301648139953613e-01 9.929957389831542969e-01 5.888689681887626648e-02
9.233521223068237305e-01 3.801245093345642090e-01 5.409544333815574646e-02 -3.745663166046142578e-01 9.227553606033325195e-01 -9.067930281162261963e-02
-6.933659315109252930e-01 1.377829611301422119e-01 7.072902917861938477e-01 4.307578206062316895e-01 8.661165237426757812e-01 2.535545825958251953e-01
6.490841507911682129e-01 -1.076534390449523926e-03 -7.607159018516540527e-01 2.430131584405899048e-01 9.478946328163146973e-01 2.060105949640274048e-01
5.032411776483058929e-03 9.534895420074462891e-01 -3.013841211795806885e-01 -9.998003840446472168e-01 1.062479987740516663e-02 1.691937260329723358e-02
-9.302391409873962402e-01 -2.993094548583030701e-02 -3.657312691211700439e-01 -4.877788946032524109e-03 9.975885152816772461e-01 -6.923459470272064209e-02
3.083727322518825531e-02 8.710510730743408203e-01 4.902235567569732666e-01 -9.993658065795898438e-01 1.813172176480293274e-02 3.064736351370811462e-02
-8.714268207550048828e-01 -4.849265217781066895e-01 -7.390305399894714355e-02 1.026535555720329285e-01 -3.295917809009552002e-02 -9.941710233688354492e-01
6.911034584045410156e-01 -1.761781238019466400e-02 7.225412130355834961e-01 -4.840066656470298767e-03 9.995676875114440918e-01 2.900205925107002258e-02
-3.286565244197845459e-01 9.432244896888732910e-01 4.808942228555679321e-02 -2.312972694635391235e-01 -3.101674839854240417e-02 -9.723886251449584961e-01
